# .PCD v0.7 - Point Cloud Data file format
VERSION 0.7
FIELDS x y z
SIZE 4 4 4
TYPE F F F
COUNT 1 1 1
WIDTH 1913
HEIGHT 1
VIEWPOINT 0 0 0 1 0 0 0
POINTS 1913
DATA ascii
3.6840897 4 0.22257853
-3.7098191 -4 0.23149872
-3.6061387 -4 0.23929691
2.2703259 0.22172117 0
-3.5415025 0.13378668 0
-1.5374953 -4 0.23225307
4 3.6145992 0.12214851
-0.37480086 -4 0.23439074
-0.29879066 -4 0.23501968
0.43749917 -4 0.23413944
3.974299 0.71027863 0
2.1190486 -4 0.23766088
2.1480641 -4 0.23212767
3.5127051 -4 0.23589993
4 -3.9687121 0.23300743
4 -3.8628154 0.2361517
-4 -3.6353576 0.23212767
4 -3.4562986 0.23703194
-4 -3.4131215 0.23175049
-4 -3.1434507 0.23678064
-1.3396776 -1.8705101 0
4 -2.8200884 0.2362771
4 -2.1076961 0.23942232
-4 -1.7101401 0.23288202
-4 -1.5089731 0.23778677
4 -1.4991332 0.23237896
4 -1.4086354 0.23112202
-4 -1.2942061 0.23175049
-4 -1.1625228 0.23263025
4 -1.0734882 0.23200178
-4 -0.96289682 0.23602581
-4 -0.71583629 0.2316246
0.57165861 -0.039840698 0
-4 -0.17890072 0.23024178
-4 0.05689374 0.23791265
4 0.16005185 0.23665476
4 0.46672201 0.23401356
-4 0.51818979 0.23388767
-1.241677 -1.4681249 0
-4 0.80675608 0.23363638
-4 1.1274079 0.23036766
4 1.188543 0.23200178
4 1.4634027 0.23791265
4 1.5706753 0.23829031
-1.578877 -3.8109999 0
4 1.6764574 0.23388767
1.3442299 3.5696561 0
-4 1.7756466 0.23112202
-4 1.9278719 0.23917103
-4 2.1050529 0.23149872
4 2.2370849 0.23728371
-4 2.2438936 0.23426485
-4 2.2648089 0.23665476
-4 2.6034214 0.23564816
-4 2.7934375 0.23401356
-4 3.1992524 0.23011637
-2.4525962 -2.5078077 0
-4 3.5986047 0.23099613
-3.8248653 4 0.23763466
-3.7772577 4 0.23715957
-3.6407502 4 0.23917103
-3.6198065 4 0.23275614
-3.4955182 4 0.2362771
-3.4251499 4 0.2362771
-3.3841956 4 0.23225307
-2.4245672 -3.020617 0
-1.9301727 4 0.23589993
-0.34159845 -0.14822142 0
-3.7285459 -3.9269123 0
-0.083421439 4 0.23099613
-0.031739354 4 0.23464203
0.26161662 4 0.23212767
1.5450441 4 0.23363638
2.0175302 4 0.23690605
1.8218687 2.1907237 0
2.6979804 4 0.23715782
2.7382495 4 0.23275614
2.4313021 2.1660748 0
3.8605592 -1.2579923 0
-3.9964509 -4 0.24716544
-3.7544415 -4 0.24811029
-3.7492533 -4 0.24861383
-2.517334 -4 0.24269485
-2.3182497 -4 0.24710226
-2.1470778 -4 0.24168777
-1.9146093 -4 0.24445772
-1.4034154 -4 0.24244308
-1.3398716 -4 0.24974775
4 -2.5093205 0.20201349
-1.044365 -4 0.24080706
-0.80184317 -4 0.24987411
-0.67101634 -4 0.24924421
-0.27576271 -4 0.24603224
-0.05013489 -4 0.2423172
0.29654345 -4 0.24345016
1.6597403 -4 0.24899197
3.8397057 0.57816076 0
2.4563372 -4 0.24055529
2.8298914 -4 0.24256897
-2.1044865 -0.098135591 0
3.0661924 -4 0.2438283
3.1015904 -4 0.2493701
1.1995109 -1.961956 0
4 -3.9637713 0.24093294
-3.4398856 -3.0714145 0
-4 -3.3646238 0.24836206
-4 -3.0427477 0.24722815
-4 -2.98405 0.24068117
-3.6704533 -3.1383536 0
-4 -2.8133705 0.24924421
4 -2.6847014 0.2454648
-4 -2.6335022 0.24659872
4 -2.3525877 0.24836206
4 -1.7973316 0.24319839
-1.5630295 2.9077952 0
4 -1.6769758 0.24206543
4 -1.2967781 0.24622059
4 -1.1417876 0.24622059
4 -0.82659894 0.2404294
4 -0.77842337 0.24017763
1.7938048 1.0065174 0
-4 -0.45480967 0.24773216
1.5615497 -2.2807059 0
3.8723366 -0.96825886 0
4 0.012342259 0.24282074
-4 0.042053029 0.24735451
4 0.07670112 0.24017763
4 0.50620311 0.24030352
-4 0.85707992 0.24785805
4 0.9404918 0.24924421
-4 1.0282941 0.24521303
4 1.2025719 0.24924421
4 1.2236234 0.24924421
4 1.2724519 0.24735451
4 1.3351651 0.24836206
-4 1.5007026 0.24533892
4 1.6415803 0.241436
-4 3.1837242 0.041734695
1.5544126 2.6989005 0
-0.77204907 1.030043 0
4 1.8625553 0.24823618
1.0187023 -0.82425499 0
-4 2.3365707 0.24206543
3.1559942 1.4608535 0
-4 2.5276592 0.24470949
-4 2.5407944 0.24030352
0.62217498 1.8397009 0
4 2.8868437 0.24748039
4 2.928102 0.24181366
-4 3.2565145 0.24370193
-4 3.2735093 0.24571705
3.601742 -2.0277677 0
-3.3771417 4 0.24987411
-3.1542921 4 0.24659872
0.77750993 -1.833631 0
-2.3852768 4 0.24748039
-1.9537189 4 0.2487402
-1.6503561 4 0.24206543
-1.5727079 4 0.24798393
-1.5177824 4 0.2493701
1.311762 0.36732149 0.16750765
0.28473926 -1.1504703 0
-1.1047082 4 0.24735451
-0.49146533 4 0.24408007
-0.47435308 4 0.24584293
0.24282801 4 0.24911785
0.92787576 4 0.241436
1.3052961 4 0.24962187
1.469981 4 0.24256897
1.9528558 4 0.24319839
1.9931719 4 0.24256897
-3.6201494 4 0.066561222
2.7601275 4 0.24949598
2.8570802 4 0.24131012
2.8603921 4 0.24773216
-3.8663843 -4 0.25075626
-3.714406 -4 0.25302458
-3.1140175 1.7766465 0
-2.4037983 -4 0.25579834
-2.2496717 -4 0.25668144
-1.1104841 -4 0.25491571
-0.14240998 2.1035154 0
-1.6948601 -3.5033846 0
-0.05553332 -4 0.25895166
0.47705823 -4 0.25794268
0.48832637 -4 0.25113392
1.2792319 -4 0.25025225
2.8057764 -4 0.25277281
3.2679906 -4 0.25100803
-2.2882543 -0.089318156 0
2.8462365 0.1742034 0
3.9045732 -4 0.25846511
-1.8643194 -1.26747 0
-4 -3.6837552 0.25478983
4 -3.5637908 0.25693369
-2.1101038 2.0239794 0
-1.2993677 1.9718559 0
-4 -2.4412091 0.2539072
2.5191522 -0.164114 0
4 -2.1218643 0.25
4 -1.6847495 0.25302458
-4 -1.3759913 0.25327682
4 -1.163383 0.25478983
-2.7890308 3.1862199 0
-4 -0.92610478 0.25289869
-4 -0.6618107 0.25403309
-4 -0.55437863 0.25743818
1.7850564 3.9165428 0
-4 -0.1762841 0.25882578
-4 -0.08891584 0.25516796
-4 0.096829653 0.25933027
-4 0.31700292 0.25239468
-4 0.83213729 0.25743818
4 0.85760838 0.25806856
-4 0.90047377 0.25756407
-2.1247048 1.7742759 0
4 1.4993285 0.25869942
-4 1.8165003 0.25996113
4 1.892211 0.25403309
4 2.2073758 0.25100803
-4 2.3278077 0.25630283
4 2.6203339 0.2517643
4 2.6664016 0.25428534
-4 3.0551662 0.25605059
4 3.2306304 0.2517643
-4 3.3905654 0.25970888
-4 3.4165111 0.25920391
4 3.4599113 0.25945616
-4 3.7043073 0.25478983
4 3.7401812 0.25958252
-3.7586811 4 0.25390232
2.3699579 -2.04427 0
-3.6223412 4 0.2564292
-2.0537193 4 0.25819492
-1.2328475 4 0.25554657
-1.1297622 4 0.25239468
0.033900224 4 0.2517643
0.25811917 4 0.25970888
0.4783611 4 0.25315094
0.83784544 4 0.25289869
-0.21759951 -1.6326337 0
1.0022697 4 0.25806856
1.8595327 4 0.25327682
1.8981588 4 0.25012589
2.028316 4 0.25693369
2.5147414 4 0.25756407
2.8041291 4 0.25567245
3.1398227 4 0.25012589
-3.0008631 2.0056543 0
-3.0739784 -4 0.26513577
-3.4600348 0.29893577 0
-2.5568671 -4 0.26172781
-2.2234347 -4 0.26488304
-1.8862128 -4 0.26526213
3.0795143 -2.6790252 0
-1.0223281 -4 0.26475716
-3.6603639 -3.2622755 0
-0.51629317 -4 0.26702976
1.1621792 -4 0.2682929
1.2767254 -4 0.26778746
1.4369781 -4 0.26740885
2.0903082 -4 0.26273727
3.3746006 -4 0.26147509
3.508399 -4 0.26109648
3.8725095 -4 0.26005831
4 -3.9924417 0.26033974
4 -3.8345187 0.26463079
-4 -3.6909361 0.26942968
-4 -3.2601664 0.26564097
-4 -3.2325509 0.26589346
-1.3542979 2.3798769 0
-4 -2.8603036 0.26273727
-2.3196578 -0.96878827 0
4 -2.1864061 0.26804018
-4 -1.9372766 0.26399946
-4 -1.8484588 0.26437807
4 -1.7963673 0.26639843
-4 -1.7293692 0.26930332
-4 -1.714556 0.26412582
-4 -1.7010063 0.26425219
-4 -1.4487983 0.26033974
3.1024108 -0.72485113 0
-4 -0.42146641 0.26261091
4 -0.2913326 0.2669034
4 -0.28247952 0.26665115
-4 -0.20179066 0.26753473
-4 -0.1176815 0.26728249
4 -0.046559319 0.26450443
4 0.034493983 0.26841927
-4 0.36407554 0.26601934
4 0.43776208 0.26425219
4 0.53631091 0.26930332
4 0.5457896 0.26160145
4 0.6743722 0.26336861
4 0.70723838 0.2613492
-4 1.1998401 0.26930332
-4 1.2122188 0.26109648
3.3618546 2.6875 0
-3.5280924 -1.9712029 0
-4 1.6998821 0.26336861
4 1.9081011 0.26665115
2.7958124 -0.032582283 0
-4 2.3016396 0.26412582
-1.1833422 -1.5603929 0
4 2.9817083 0.26033974
1.607898 3.4668157 0
-4 3.0325296 0.26778746
3.6905317 4 0.13902521
4 3.9469972 0.26466519
-3.7689195 4 0.26888934
-3.4159346 4 0.26122284
-2.400852 4 0.26753473
-2.1048133 4 0.26021338
4 0.60675812 0.17164087
2.2285016 -0.69457817 0
-0.93470836 4 0.2638731
1.0431321 1.1389205 0
-0.7288754 4 0.2669034
-0.55730003 4 0.26210642
-0.53870994 4 0.26601934
-0.65104318 1.7865945 0.13458848
0.20517302 -0.97395563 0
0.13594088 4 0.2690506
0.17222416 4 0.26513577
0.60837328 4 0.26551437
0.84777111 4 0.26854515
1.0538158 4 0.26437807
1.6572548 4 0.26917696
1.7165335 4 0.26298952
2.0752249 4 0.26122284
3.3236349 4 0.26147509
3.6224692 4 0.26816654
-1.304566 -3.2084179 0.13977098
-0.921269 -3.9403291 0
-3.3500943 -4 0.27562189
-2.9444785 -4 0.27271461
-2.4783292 -4 0.27423143
-1.5336725 -4 0.27448416
-1.1506441 -4 0.27600145
0.69765913 -0.08575058 0
-0.091228217 -4 0.27347326
0.48779023 -4 0.27119827
-2.3636937 -2.5352111 0
0.64066315 -4 0.27271461
0.97052038 -4 0.27865696
1.2926848 -4 0.27170372
1.3254061 -4 0.271451
1.8481725 -4 0.27006102
-2.5815136 -1.8441641 0
2.5959859 -4 0.27170372
-3.7441497 2.9234123 0
3.557323 -4 0.2765069
-4 -3.893429 0.27671498
-4 -3.7928638 0.27788362
4 -3.7529113 0.27423143
4 -3.5327604 0.27132463
-4 -3.4031568 0.27258825
4 -3.3146787 0.27764511
-4 -2.9176815 0.27802467
-4 -2.602886 0.27549553
-1.6826558 -3.0576587 0
-4 -1.9515238 0.2767601
4 -1.9221798 0.27524281
-3.644381 -0.24482262 0
-3.6904964 4 0.011849403
4 -1.0821757 0.27258825
-4 -0.99222171 0.27461052
-4 -0.92256212 0.27663326
-4 -0.56987101 0.27638054
-4 -0.33955044 0.27056646
-4 -0.19585347 0.27499008
4 0.49933451 0.27284098
-4 0.74383998 0.27107191
-4 0.77791834 0.27473688
4 0.95006502 0.27638054
4 1.0336444 0.2743578
-4 1.0855861 0.27600145
2.0935335 -2.1950712 0
1.2283239 -2.0423312 0
4 1.4588052 0.27258825
2.5196655 0.56704855 0
-1.1912735 -3.1845102 0
4 1.9580495 0.27410507
-4 2.0623822 0.27499008
-3.8337457 -3.0019262 0
2.7957394 -2.8449626 0
4 2.6351628 0.27524281
4 2.6704547 0.27941561
-4 3.1433764 0.27789783
4 3.3820813 0.27119827
4 3.8145366 0.27236119
-3.148026 -1.4972386 0
4 3.9151366 0.27361369
-3.7270715 4 0.27353874
-3.6962354 4 0.27334642
-3.3454502 4 0.27524281
-2.9308262 4 0.2765069
-2.8362801 4 0.27840376
-2.6955309 4 0.27195644
-2.5436468 4 0.27056646
-0.42135811 -0.69624186 0
-2.0123382 4 0.27220917
-1.5984272 4 0.27777147
-1.3480376 4 0.2782774
-1.3042929 4 0.27334642
-1.2974969 1.9281005 0
-0.35314199 4 0.27574825
-0.28788537 4 0.27992153
-0.16468772 4 0.27157736
0.47151381 4 0.27903605
0.66595012 4 0.27258825
0.94226331 4 0.27777147
2.898453 -3.8332224 0
1.0603452 4 0.27347326
1.082541 4 0.27979517
1.3214853 4 0.27992153
1.612963 3.8631327 0
1.4958993 4 0.27941561
1.8599793 4 0.27536917
2.0915642 4 0.27764511
-3.9041283 3.1794417 0
3.4706213 4 0.27663326
1.3754429 -3.9778748 0
-1.8690304 -0.29468715 0
-2.9859064 -4 0.28827477
1.7075033 -2.2232237 0
-1.4389114 -4 0.28802156
2.1844554 -3.5564284 0
-1.0149667 -4 0.28599596
-0.7126258 -4 0.28030109
-0.65313864 -4 0.28219891
-0.56002676 -4 0.28941488
-0.48508754 -4 0.2886548
-0.15600224 -4 0.28941488
0.018448293 -4 0.28472996
0.43400556 -4 0.28966808
-1.5562497 2.9002151 0
0.7145493 -4 0.28802156
0.90598035 -4 0.28232527
1.322917 -4 0.28599596
2.7175319 -4 0.28650236
3.7467337 -4 0.2887454
3.9002948 -4 0.28358123
3.910742 -4 0.28976905
-4 -3.3703589 0.28371763
4 -3.2511029 0.28548956
4 -3.078815 0.28586912
-4 -2.9790137 0.28472996
4 -2.8711033 0.28536272
4 -2.718771 0.28106022
-4 -2.3872476 0.28169298
-4 -2.3731444 0.28992128
4 -1.6018094 0.28359079
4 -1.5739026 0.28321123
-4 -1.3425827 0.28207254
4 -1.2534664 0.28143978
4 -1.142321 0.28916121
-4 -1.0361657 0.288908
4 -0.99990028 0.28599596
4 -0.71264786 0.28422356
-2.9326496 2.3502173 0
-4 -0.54163295 0.28511
4 -0.53515482 0.2848568
4 -0.16391508 0.28308487
-1.3691792 1.716516 0
4 0.41597962 0.28169298
-0.37183523 -1.6489077 0
-1.7478497 1.4912665 0
4 2.0524035 0.28156614
-4 2.1916208 0.28726196
-0.57264531 2.9228001 0
4 2.6156883 0.28118658
-4 3.2675519 0.287642
4 3.418479 0.28852844
4 3.4239423 0.28700876
4 3.5679188 0.28156614
-4 3.5838892 0.28346443
-4 3.5926008 0.2878952
-3.1449966 4 0.28245211
-1.7917012 4 0.28118658
-1.6748695 4 0.28181934
-1.4171578 4 0.28219891
-0.93149197 4 0.28662872
-0.88392699 4 0.28776836
-0.76372677 4 0.28346443
-0.69314879 4 0.28954124
-0.66140729 4 0.28599596
-0.62607968 4 0.28916121
3.9323406 -3.2929759 0
-0.19454923 4 0.28042746
0.43745276 4 0.28232527
1.0283363 4 0.28586912
-3.3659658 0.076888442 0
2.2375729 4 0.28852844
2.2407365 4 0.2848568
2.9592652 4 0.28966808
3.1603942 4 0.2848568
3.8883486 4 0.28143978
-3.9014788 -4 0.29511642
-3.441205 -4 0.2967639
-3.0850961 -4 0.29118824
-3.0625539 -4 0.29346848
-2.7515893 -4 0.29460907
-0.96724385 -4 0.29334211
-0.017513767 -4 0.29372215
0.32972825 -4 0.29308844
0.91678536 -4 0.2927084
1.2381589 -4 0.29397535
1.4880861 -4 0.29207468
1.6149999 -4 0.29803181
2.531554 -4 0.29207468
2.8345799 -4 0.29625702
3.3633478 -4 0.29524279
0.37679118 1.337837 0
3.7317133 -4 0.29800516
3.9488745 -4 0.2952055
4 -3.929718 0.29765177
2.8870931 -1.9066634 0
4 -3.3116963 0.29701757
-4 -2.9518301 0.29372215
-4 -2.9094005 0.29435587
4 -2.7389884 0.29232836
4 -2.6613798 0.29917336
4 -2.5300233 0.29308844
4 -2.4947686 0.29321527
4 -1.9636391 0.29118824
-4 -1.8840446 0.29536963
-4 -1.769835 0.29968023
4 -1.6705505 0.2913146
4 -1.5894364 0.29372215
4 -1.4363961 0.29460907
0.05516839 -2.5763249 0
-1.137218 -2.950017 0
-4 -0.90103352 0.2967639
-4 -0.24784255 0.29486275
4 -0.083207473 0.29942656
-4 -0.024096891 0.29600334
4 0.0016014278 0.29359531
-1.7217172 0.82106268 0
-4 0.32746238 0.29714441
4 0.59590989 0.29042816
-1.6833694 -1.9266348 0
4 0.66266847 0.29169464
-1.0726006 -1.6168342 0
4 1.1692687 0.29815865
-4 1.3147345 0.29232836
2.1384444 0.86345875 0
-4 1.8587246 0.29968023
-4 2.1314673 0.29156828
4 2.2526054 0.29435587
-4 2.6238351 0.29422903
-4 2.7141981 0.29600334
-4 2.7624655 0.29790497
-1.2074442 -0.6914115 0
4 3.106128 0.29803181
4 3.2780702 0.29765177
0.33081535 -2.3864784 0
4 3.5553951 0.29625702
-4 3.6119976 0.29917336
-3.8449476 4 0.29010364
-3.3988187 4 0.29625702
-3.0708454 4 0.29524279
-3.0427418 4 0.29486275
-2.9093876 4 0.29777813
-2.6968386 4 0.2927084
-2.3170962 4 0.29055452
-2.0584943 4 0.29030132
-1.6524483 4 0.29055452
-1.310709 4 0.29891968
-0.63872707 4 0.29980707
0.64502108 4 0.29384899
-1.5527166 3.9613853 0
0.88202417 4 0.29372215
1.0018392 4 0.29460907
1.7170074 4 0.29169464
2.107542 4 0.29663754
2.4821267 4 0.29828548
2.5426435 4 0.29017448
-2.9827557 3.3401933 0
-1.7618173 3.1458535 0
3.6248367 4 0.29739809
3.8493729 4 0.29391241
-3.427947 -4 0.30183649
-2.101126 0.48729777 0
-3.2180157 -4 0.30970573
-3.0923822 -4 0.30907106
-2.9318938 -4 0.30437422
-2.5159175 -4 0.30044127
1.5032933 4 0.12512398
-2.2288618 -4 0.30691242
-1.6913238 -4 0.30488205
-1.4126368 -4 0.30716658
-0.88000971 2.6389103 0
-1.325053 -4 0.3057704
4 1.2553155 0.10172081
-1.2272338 -4 0.30082178
-0.88343382 -4 0.16602945
-0.65003169 -4 0.30373955
-1.9301946 -1.1925762 0
0.35261923 -4 0.30044127
1.0525346 -4 0.30412054
1.3741884 -4 0.3005681
1.8676462 -4 0.30792809
2.494153 -4 0.30044127
2.2940626 2.1634145 0
2.8227427 -2.8071942 0
3.9771461 -4 0.30252257
4 -3.6583242 0.30513573
4 -3.4837499 0.30018759
4 -3.1266382 0.30069494
-4 -3.1057928 0.30323219
4 -2.653626 0.30589724
-4 -2.421895 0.30424738
4 -2.3027701 0.30031443
4 -2.0864377 0.30158281
4 -1.152281 0.30843592
-4 -1.011537 0.30792809
4 -0.70389974 0.30995989
-4 -0.52105188 0.30970573
-4 -0.32538366 0.30082178
4 -0.31760788 0.30602407
4 -0.21501467 0.30653191
-4 -0.16653991 0.30170965
4 0.076594397 0.30031443
3.0777457 -3.0019526 0
0.19049537 -3.0318751 0
4 0.86489344 0.30335903
-4 2.5984523 0.14673138
-4 0.95694494 0.3012023
4 0.99072027 0.30310535
-1.8486927 3.8232348 0
-0.86462665 -1.1110711 0
-4 2.1339631 0.30767441
-4 2.3425574 0.30285168
-4 2.5968063 0.3046279
-0.81436658 0.21303061 0
-2.2181101 -1.3093129 0
-4 3.6211715 0.30412054
4 3.624877 0.30431151
-4 3.962883 0.30221701
4 3.9934204 0.30638683
-3.9530132 4 0.30997637
-2.1044865 -0.098135591 0
-3.0757289 4 0.30348587
-2.7996976 4 0.30513573
-2.3218222 4 0.30856323
-2.2106574 4 0.30437422
-1.9375627 4 0.30615091
-1.8769591 4 0.30526257
-1.6218467 4 0.3053894
-1.4106205 4 0.30589724
3.2041149 -0.54427004 0
-0.88518047 4 0.30285168
-0.10469174 4 0.30006075
0.23768243 4 0.30247116
0.26814136 0.3950015 0
-2.4476252 -1.8660617 0
1.4752177 4 0.3039937
1.7481533 4 0.30247116
1.8405871 4 0.3053894
2.3168468 4 0.30665874
3.9800448 4 0.30716658
-3.7596941 -4 0.31021357
-3.6550574 -4 0.31605768
-2.3964944 -1.8420079 0.15923643
-4 -2.3731444 0.28992128
-1.907353 -4 0.31860018
-1.8128623 -4 0.31605768
-0.86888254 -4 0.31860018
2.1213312 1.2196279 0
-0.52146727 -4 0.31961727
-0.41399327 -4 0.31834555
2.6594152 0.29453552 0
-0.19570953 -4 0.31211901
0.28569034 -4 0.3142786
0.72500169 -4 0.31485057
1.2016767 -4 0.31313515
1.846853 -4 0.31211901
2.7069747 -4 0.31961727
-2.9716945 0.85341799 0
3.1056831 -4 0.31148386
-4 -3.892308 0.31772459
4 -3.879992 0.31948996
0.38229948 -3.2358427 0
-4 -3.7922626 0.31081879
-4 -3.775167 0.31148386
-4 -3.6128383 0.31682014
4 -3.6189845 0.31211901
4 -3.1083014 0.31478691
4 -2.9624045 0.31987143
4 -2.9435863 0.31084871
-3.2623193 -0.80388808 0
-4 -2.6360664 0.31351614
-3.1022527 -1.943505 0
-4 -2.3819396 0.31135702
4 -2.3613834 0.31732893
2.8865473 -2.1053576 0
-4 -1.795722 0.31987143
4 -1.6444542 0.31745577
-4 -1.4819622 0.31516838
-4 -1.3342969 0.3170743
2.9378939 -2.0160918 0
-4 -1.2849762 0.31173801
0.27324349 -3.934916 0
-3.7401085 -3.3370085 0
4 -0.81947291 0.31872702
-4 -0.72085637 0.31300831
4 -0.65280092 0.31656599
4 -0.54959321 0.31021357
-4 -0.41960609 0.31593084
-1.650092 4 0.17488527
4 -0.18466215 0.31821871
-2.6245341 -1.1152123 0
-4 0.21690378 0.31084871
-4 0.59206909 0.3133893
-4 0.77069432 0.3192358
4 0.92270088 0.31834555
4 0.98483062 0.31110287
4 1.6067544 0.31834555
-4 1.8830953 0.31478691
4 1.9428654 0.31326246
-4 1.9680998 0.31783724
4 2.8596222 0.31377029
-4 2.8937695 0.31199169
-4 3.1184185 0.31097555
4 3.1644335 0.31440592
-4 3.3641183 0.31122971
-4 3.3840523 0.31402445
-4 3.4949646 0.31351614
-4 3.6837809 0.31885433
0.014133126 -3.2677584 0
1.7060989 -0.22117996 0
-3.8159256 4 0.31999445
-2.3776579 2.6722364 0
-2.3827629 4 0.31516838
-2.3638802 4 0.31021357
-1.9044898 4 0.3116107
-1.7602866 4 0.31148386
-1.5719223 -0.22325563 0
-1.1894209 4 0.31669331
-0.90339541 4 0.31516838
-0.73712176 4 0.31211901
0.76798081 4 0.31389761
0.90161347 4 0.31605768
1.4923289 4 0.31720185
1.5997643 4 0.31173801
1.6984409 4 0.31453276
3.4153023 -2.7391405 0
3.3613932 4 0.31796455
3.4525793 4 0.31453276
0.24323192 0.32420793 0
3.5880084 4 0.31199169
0.29378879 2.0988755 0
3.9788997 4 0.31758308
-2.9949462 -4 0.32495928
-2.2535126 -4 0.32445049
3.0738556 -2.7544837 0
-1.7125785 -4 0.32419586
3.9617138 -2.1498222 0
-1.3520871 -4 0.32763195
-1.3195858 -4 0.32775927
-1.0029027 -4 0.32623196
-2.6200156 3.3037987 0
1.509166 -4 0.32203341
2.0719538 -4 0.32088852
2.1291108 -4 0.32355976
-0.9306103 3.313405 0
2.8243325 -4 0.32470465
3.2955081 -4 0.32406855
-2.3147647 3.1954119 0
3.4021251 -4 0.32597733
-1.8049281 3.400336 0
-4 -3.5847731 0.32457781
-4 -3.5736051 0.32165194
4 -3.072232 0.32101583
-4 -2.9849987 0.32317829
4 -2.9871652 0.32101583
4 -2.9553106 0.32457781
4 -2.7767107 0.32534122
-4 -2.7212718 0.32737732
4 -2.7189884 0.32470465
4 -2.4513013 0.32954121
-4 -2.3285396 0.32063437
-4 -1.7944825 0.32368708
4 -1.5090871 0.32368708
-4 -1.2393178 0.32877731
-4 -1.0820863 0.32050705
4 -0.94514227 0.32114315
-4 -0.88871384 0.32165194
4 -0.81435323 0.32954121
4 -0.80441147 0.32534122
0.85932261 -4 0.16540623
-4 -0.73591048 0.32852268
-4 -0.72725272 0.32699537
4 -0.68977201 0.32508659
-4 -0.63150221 0.32928658
4 -0.58004034 0.32114315
-4 -0.57216191 0.32712269
0.20774598 -3.7578087 0
-3.1831403 -3.9570379 0
-4 0.26102811 0.32050705
-4 0.37085781 0.32775927
-4 0.3823173 0.32127047
-4 0.92723262 0.32966852
0.93418419 0.91620922 0
-4 1.3960062 0.32457781
4 1.4031699 0.32731366
-4 1.4785422 0.32127047
4 1.8762059 0.32801342
4 2.1466076 0.32686806
-1.6214951 0.59497511 0
-4 2.9365294 0.32088852
0.56418729 -0.90993071 0
-4 3.4369535 0.32852268
2.4939187 3.8124087 0
4 3.8374324 0.328722
1.1172318 -1.6392183 0
-3.7431419 4 0.32403442
-3.5789442 4 0.32241488
-3.4064307 4 0.32127047
-2.868628 4 0.32572269
-2.7746291 4 0.32979584
-1.2916663 4 0.32279634
3.5929427 -3.9301147 0
-0.48968554 4 0.32801342
-0.3213295 4 0.32305098
-0.65087068 -2.1096749 0
0.32524264 4 0.32050705
-2.4351468 3.7002988 0
1.2785189 4 0.32419586
1.458329 4 0.32038021
1.5601398 4 0.32216072
2.4040117 4 0.32050705
4 2.329443 0.20376682
3.2813487 4 0.32438755
-3.956955 -4 0.33425331
-0.62318969 -2.1189384 0
-3.8389091 -4 0.33871317
-3.8194673 -4 0.33718395
-3.1201079 -4 0.33183336
-2.940295 -4 0.3379488
-2.9378285 -4 0.33196068
-2.8042245 -4 0.33055973
-2.5870941 -4 0.33094168
-1.9628811 -4 0.33348894
-1.957822 -4 0.3303051
-1.8385744 -3.8547606 0
-1.4631203 -4 0.33909559
-0.91113597 -4 0.33387136
-0.72272819 -4 0.33259726
3.8096104 -3.1299324 0
1.5093018 1.0691565 0
0.43660837 -4 0.33234262
0.60317868 -4 0.33590984
1.5303314 -4 0.33005047
1.9718361 -4 0.33629179
2.0566745 -4 0.33399868
2.8212483 -4 0.33106899
3.3786814 -4 0.33986092
3.581218 -4 0.33858585
3.7321856 -4 0.33314452
3.8087008 -4 0.33604133
3.324769 -1.6747799 0
-0.8315568 3.5115256 0
-0.91744947 1.5581021 0
-4 -3.2853675 0.3303051
2.9374261 -2.8553696 0
-4 -0.70706522 0.02641058
4 -2.4553967 0.33476305
4 -2.2959242 0.33399868
-4 -2.2641833 0.33629179
-3.4416578 -0.74016881 0
4 -1.9169201 0.33998823
4 -1.861233 0.33896828
-0.63625371 -2.8559394 0
-4 -1.6190996 0.33476305
-4 -1.3869772 0.33552742
3.4092317 1.7810298 0
4 -0.78377956 0.33310699
-1.186136 -2.4305182 0
-4 -0.48375618 0.3365469
4 -0.28826576 0.33947802
3.5794802 -2.6152639 0
-4 0.23658887 0.33183336
4 0.26084968 0.33743906
-0.57796323 3.5779057 0
1.3102474 0.53900063 0
-1.8695498 0.096691132 0
-4 1.4446546 0.33068705
-4 1.7175485 0.33616447
4 1.8447826 0.33667421
-4 1.8536963 0.33960581
-4 2.1731803 0.33629179
-4 2.358186 0.33196068
-4 2.6134307 0.33680153
4 3.0523465 0.33807611
-4 1.1274079 0.23036766
-4 3.5420043 0.33132362
2.0907521 -1.5814285 0
4 3.9847584 0.33155352
-3.5830758 4 0.33387136
-3.2206006 4 0.33246994
-3.073415 4 0.33323431
-2.0266969 4 0.33820343
-2.8606739 -1.3030267 0
-0.98647892 4 0.33705664
-0.75803024 4 0.33399868
-0.43866289 4 0.33081436
0.2178621 4 0.33845854
3.4697874 -3.5703731 0
2.9202015 -2.8771305 0
1.0215881 4 0.335145
1.0910199 4 0.33565474
2.796979 3.515645 0.23606706
1.8565245 4 0.33132362
2.1601322 4 0.33259726
2.3751607 4 0.33145142
2.6643016 4 0.33616447
2.7722049 4 0.33960581
2.7913344 4 0.3393507
2.9263225 4 0.33501768
2.9628382 4 0.33692884
-1.8952255 -2.9429879 0
3.1272588 4 0.33297968
3.2272091 4 0.33106899
-0.3348586 4 0.020411968
-3.6655161 -4 0.34610987
-3.6477866 -4 0.3415184
-2.1530666 -4 0.34598255
0.36033797 2.6428688 0
-1.7583598 -4 0.34853458
-1.6593167 -4 0.34993887
-0.011257693 -4 0.34355879
0.23191583 -4 0.34789658
0.9290055 -4 0.34496164
1.9238501 -4 0.34088087
3.7847528 -4 0.34334812
3.9955583 -4 0.34404758
4 -3.9675224 0.3436861
4 -3.4858711 0.34228325
-4 -3.4039776 0.34802437
-4 -3.3885984 0.34266567
4 -3.3829277 0.34662056
-1.4566965 3.5154381 0
4 -2.6912987 0.34496164
-4 -2.5820994 0.34164572
-4 -2.5374599 0.34164572
-4 -2.4961035 0.34878969
-4 -2.1796198 0.34572744
4 -2.1563568 0.34024334
3.4760218 -0.69374561 0
4 -1.7689936 0.34496164
-4 -1.6951255 0.34419632
-4 -1.6693041 0.34751368
4 -1.6403779 0.34075308
4 -1.6124831 0.34649277
4 -1.5896165 0.34878969
-2.9949462 -4 0.32495928
1.0303841 -2.1983805 0
4 -0.87983483 0.34317589
-2.9750431 -4 0.20928049
4 0.10035405 0.3415184
-4 0.22331913 0.34572744
-4 0.49819577 0.34713078
-4 0.70600271 0.34049797
-4 0.82223141 0.34738588
-4 0.92469901 0.34317589
4 0.97376823 0.34330368
-4 1.0152926 0.34419632
4 1.0577141 0.34674788
4 1.102597 0.34878969
4 1.2742859 0.34496164
4 1.5252005 0.34202814
4 1.5748216 0.34930038
4 1.7045379 0.34253836
-4 1.985517 0.34304857
-4 2.0625963 0.34292078
-4 2.2384083 0.34330368
-2.5627539 3.0680096 0
4 2.6484656 0.34891748
4 2.6665812 0.3415184
-4 3.2680254 0.34917307
-4 3.3859606 0.34075308
2.7272992 3.3030725 0
4 3.8179405 0.34273082
-3.9626672 4 0.34348375
-3.5453238 4 0.34037066
-2.0293589 4 0.34432411
-1.6450689 4 0.34649277
-1.4648631 4 0.34993887
-1.2774656 4 0.34610987
-0.99336421 4 0.344069
-0.750691 4 0.34394121
-0.69437611 4 0.34623766
-0.51871967 4 0.34981108
-1.4304937 1.0512482 0
0.60491264 4 0.34815168
1.1412485 4 0.3411355
-1.0157092 -2.4944386 0
-2.7035644 2.2196195 0
-0.091100693 -1.893919 0
1.5374109 4 0.34764147
2.6580739 4 0.34866238
-2.8486633 1.8173847 0
2.8202293 4 0.34177303
2.8884242 4 0.34304857
2.4709125 3.2217207 0
3.7954161 4 0.34725857
3.8698688 4 0.34445143
-3.3690577 -4 0.35402489
-3.1762385 -4 0.35108757
-2.8796759 -4 0.35351372
-2.6365521 -4 0.35760164
-2.4825971 -4 0.35159826
-1.9690936 -4 0.35159826
-1.5388883 -4 0.35440779
-0.38785213 -4 0.35530186
0.33924961 -4 0.35134315
0.74511135 -4 0.35594082
1.2483262 -4 0.35249233
1.8052274 -4 0.35887957
2.192318 -4 0.35657978
3.2945871 -4 0.35645199
3.604475 -4 0.35504675
-4 -3.6298912 0.35657978
-4 -3.3505952 0.35594082
4 -2.9292727 0.35274744
-4 -2.5496275 0.35581303
-4 -2.3388047 0.35939121
4 -2.0451009 0.35491896
4 -1.74551 0.35721827
4 -1.4327873 0.35389709
4 -0.98783004 0.3563242
-4 -0.53432119 0.35696316
-4 -0.20739281 0.35044956
4 0.16778946 0.35415268
4 0.49646795 0.35747385
1.8494971 2.5411384 0
-4 1.2960727 0.35594082
4 1.5678823 0.35530186
4 1.7253618 0.35249233
-4 1.9487919 0.35683537
4 1.9742463 0.35147095
-4 2.2170548 0.35594082
4 2.2574606 0.35849619
-4 2.3145137 0.35887957
-4 2.6197042 0.35083246
4 2.657192 0.3563242
-4 2.683594 0.35990238
-4 2.7699788 0.35772943
-4 2.8901844 0.35517454
4 3.1328876 0.35300303
-0.27967983 -2.7570853 0
-4 3.5838892 0.28346443
-3.348794 1.4615622 0
4 3.7049737 0.35137698
-3.5480115 4 0.35351372
-3.268209 4 0.35696316
-3.0838866 4 0.35249233
0.83761835 2.1558161 0
-2.3468416 4 0.35364151
-1.875061 4 0.35479116
-1.8251917 4 0.35287523
-1.7460116 4 0.3582406
-1.163712 -1.7140522 0
-0.38320327 3.4132359 0
0.98044223 4 0.35887957
1.2340274 4 0.35402489
3.3546114 -3.4940081 0
2.5723886 4 0.35121536
-2.6968007 -3.7549129 0
2.8556106 4 0.35019398
-1.016796 -2.0408764 0
3.9601214 4 0.3582406
3.9827309 4 0.35300303
-3.8621511 -4 0.36987877
-3.1869335 -4 0.36821508
-1.2459595 -1.0350497 0
-2.7109294 -4 0.3643775
-1.2483364 -4 0.36847115
-1.0181525 -4 0.368855
1.7677678 -4 0.14275312
-0.48594508 -4 0.36719131
-0.31682664 -4 0.36476088
0.2270481 -4 0.36680746
0.79262066 -4 0.36015797
-0.0036913753 -2.2241654 0
1.4649932 -4 0.36476088
2.5083432 -4 0.36565638
0.79319537 1.7948695 0
3.7048824 -4 0.36204785
-4 -3.9824924 0.36834002
3.5024345 -2.7345018 0
-1.2471471 -1.7757573 0
4 -3.7417395 0.3622036
-3.7743554 -0.47786951 0
-4 -3.0841281 0.36731958
4 -2.5015121 0.36591196
4 -2.1429341 0.36578417
4 -2.0895958 0.36118078
-4 -1.9959803 0.36629581
4 -1.5893385 0.36565638
-4 -1.3799936 0.36105251
4 -1.3294837 0.36476088
4 -1.1196232 0.36003017
-4 -0.97440898 0.36527252
-1.3051224 2.7117586 0
-1.1127917 -2.98911 0
2.7297211 -3.8834281 0
-4 -0.2740854 0.36808729
4 0.2689209 0.36399364
4 0.38250268 0.3622036
-4 0.43051952 0.36821508
4 0.51227605 0.363482
4 0.86776662 0.36808729
4 1.0283538 0.3643775
4 1.2875056 0.36399364
-4 1.636471 0.3643775
-0.18950528 -3.4022274 0
4 1.840703 0.36066914
-4 2.8194027 0.36514473
-4 2.8483303 0.36847115
-4 2.9350407 0.36565638
4 2.9709232 0.36757517
-4 3.1289687 0.3643775
-2.0708783 1.8682857 0.18481135
4 3.6297476 0.368855
-3.8835666 -0.30453038 0
-3.3177323 4 0.36297035
-3.1332083 4 0.36015797
-2.1344688 4 0.36731958
-2.0818849 4 0.36578417
-1.9253378 4 0.36936665
-1.1418639 4 0.36744738
-0.70292491 4 0.36156416
-0.10042599 4 0.36271477
0.21932501 4 0.36360979
0.51133323 4 0.36616802
1.0493648 4 0.36284256
1.5053006 4 0.36015797
2.1083362 4 0.36719131
-0.50071514 -3.1546807 0
2.3425086 4 0.36859894
3.2044547 4 0.36872673
-3.833081 -4 0.37154293
-3.3486466 -4 0.37730551
1.5682474 0.65756428 0
1.151644 -3.9251871 0
-2.2899337 -4 0.37820244
-1.0521212 -4 0.37359142
0.00030879676 -4 0.37051868
0.25898403 0.94728559 0
0.34234089 -4 0.37051868
0.58786058 -4 0.37961197
1.4429438 -4 0.37051868
1.5463184 -4 0.37820244
1.5949106 -4 0.37474394
-3.585988 -2.999289 0
-0.72218347 -1.3737283 0
2.480603 -4 0.37909937
3.3893714 -4 0.37346315
3.7758391 -4 0.3766143
3.9172001 -4 0.37487465
-4 -2.7727127 0.37909937
4 -2.7029729 0.37103081
-4 -2.4633927 0.37909937
4 -2.4663773 0.37192678
-4 -2.4031651 0.37410355
4 -1.7939572 0.37231112
-1.6798435 1.6919903 0
4 -1.7067405 0.37333536
4 -1.1830155 0.37384748
-1.0533087 2.968725 0
4 -0.70014447 0.37986851
-4 -0.66494346 0.37525606
4 -0.5848726 0.37743378
-4 -0.53373158 0.37756205
2.7793665 2.2311287 0
-4 -0.17626321 0.37871504
-2.6401062 3.9244332 0
4 -0.048961811 0.37596059
4 0.15270048 0.37243891
4 0.37467009 0.37666512
-4 0.39290082 0.37435961
-4 0.613361 0.37243891
-4 1.0315751 0.3799963
-4 1.1844046 0.37256718
-4 1.2062045 0.37679338
4 1.2874334 0.3711586
2.5083129 3.5331895 0
-3.360436 -0.88276291 0
4 1.8044422 0.37461567
4 1.8430781 0.37794638
-4 2.1041441 0.37000656
-4 2.2783439 0.37013483
-2.7225709 1.7363753 0
-4 2.6043348 0.37653685
-1.3370458 0.33978876 0
4 3.4661043 0.37448788
4 3.5815077 0.37474394
-3.4790304 3.7048719 0
-2.6853623 4 0.37845898
-2.6200044 4 0.37551212
-2.4056897 4 0.37359142
-1.9074464 4 0.37051868
-1.5606641 4 0.37064695
-1.4381766 4 0.37589645
-1.0085609 4 0.37039089
1.4418837 4 0.18275166
-0.028714448 4 0.37051868
0.37096471 4 0.37423182
-3.7832208 1.4430889 0
0.476809 4 0.37615252
0.53247392 4 0.37679338
0.73682982 4 0.37756205
0.85351026 4 0.37282324
1.0651466 4 0.37538433
1.1471474 4 0.37564039
1.7129005 4 0.37602472
2.1549029 4 0.37384748
2.3946571 4 0.37845898
2.5081601 -2.1059971 0
3.0113556 4 0.37384748
3.3437054 4 0.37935591
-3.9342666 -4 0.38884449
-3.6190257 -4 0.38794661
-3.3615389 -4 0.38679171
0.53945559 -2.5614581 0
-2.8592348 -4 0.38063717
-2.3629489 -4 0.38999939
-1.4131634 -4 0.38473988
-0.74839115 -4 0.38230371
-3.6761549 2.2889926 0
2.3045077 1.6896124 0
-1.7131283 -2.8622041 0
3.2679243 -4 0.009282589
1.666694 -4 0.38897276
1.9374049 -4 0.38435507
-0.48993549 -0.26245841 0
3.5660715 -4 0.38910103
1.4538741 -3.2498655 0
4 -3.7361546 0.38935757
-4 -3.3078372 0.38397026
-4 -3.2637746 0.38435507
4 -3.1752667 0.38307285
4 -2.9174571 0.38127804
-4 -2.6914937 0.38550949
4 -2.4494169 0.3892293
-4 -2.2859099 0.38730478
-4 -2.2327526 0.38781834
-1.3275626 -1.8448362 0
-4 -2.0350718 0.38076544
4 -1.9839011 0.38987112
4 -1.5487869 0.3837142
-4 -1.1529711 0.3892293
4 -0.95057905 0.38794661
-4 -0.60684615 0.38858795
-4 -0.16139969 0.38845968
4 -0.055088356 0.38217545
-3.5676444 3.8821428 0
4 0.6631639 0.38538122
-4 0.67909628 0.38332939
4 1.0736934 0.38550949
-4 1.3323402 0.38820314
4 1.7022793 0.38704824
4 1.9418557 0.3837142
4 2.2930005 0.38884449
4 2.5419552 0.38294458
-4 2.6942396 0.38256025
2.6113377 1.9917164 0
-4 2.9013827 0.38589382
-4 2.9330771 0.38987112
-4 2.9709153 0.38974285
4 3.1015382 0.38486814
-4 3.129405 0.38653517
4 3.237535 0.38384199
4 3.4649734 0.3837142
0.48529404 0.84749764 0
-4 3.7077303 0.38704824
-4 3.9577055 0.38512468
-3.8498278 4 0.38858795
-3.7907114 4 0.38055569
-3.0793104 4 0.38127804
-2.92189 4 0.38691998
-2.208302 4 0.38845968
-1.1661729 4 0.38140631
-0.99602675 4 0.38204718
-0.9180429 4 0.38076544
-0.73131627 4 0.38153458
-0.24198315 4 0.38307285
0.54119802 4 0.38063717
-2.5815351 -3.1185551 0
2.0803845 4 0.38935757
2.9327173 4 0.38730478
-2.6102691 0.87110609 0
3.1903346 4 0.38486814
3.6984563 4 0.38166285
-4 3.7671924 0.119174
-3.2493958 -4 0.39462042
-2.8865209 -4 0.39230967
2.5397756 1.8439765 0
-2.8140774 -4 0.39821672
-2.6298113 -4 0.3939786
-1.3775619 3.9053049 0
-2.3326943 -4 0.39076948
-1.542864 -4 0.39487743
-0.35062319 -3.0147724 0
-0.84094733 -4 0.39860201
0.59113485 -3.9378691 0
-0.44347024 -4 0.39590454
-0.32435775 -4 0.39192438
0.058509231 -4 0.39757442
0.10466984 -4 0.39372158
1.9880395 -4 0.39590454
2.0080395 -4 0.39526272
2.8588283 -4 0.39115429
-0.45986295 -1.5839313 0.32782745
0.37531906 -1.5535393 0
-4 -3.9252653 0.39791298
-4 -3.577584 0.39526272
-4 -3.3495374 0.39757442
1.7960957 -3.8471732 0
-4 -2.8582585 0.395648
4 -2.6072431 0.39115429
4 -2.4829869 0.3921814
-4 -2.3803172 0.39385033
4 -2.1383789 0.39950132
4 -1.6094035 0.39243793
4 -1.5791367 0.39873075
-4 -0.79228419 0.39436388
2.4579284 -4 0.028125763
-0.77674258 -0.71867049 0
-4 0.019236922 0.3914113
-4 0.76982629 0.39718914
-4 1.064539 0.39911604
-4 1.4390653 0.39333677
4 1.6783055 0.39115429
-4 1.8834288 0.39269447
4 1.9552863 0.39179611
-4 2.1798179 0.3914113
-2.8064363 3.7398508 0
-4 2.2622156 0.39025593
-4 2.2709286 0.39385033
-0.84339154 1.8352922 0
4 2.4767852 0.39205265
-4 2.6478062 0.39205265
4 2.8318017 0.39539099
4 0.5897339 0.060162544
-4 3.2234402 0.3950057
4 3.3443031 0.3921814
-4 3.5639913 0.39641857
-4 3.6506379 0.39847374
-3.2051105 4 0.39230967
-3.0271156 4 0.39975834
-3.0069697 4 0.3914113
-2.0905695 4 0.39102602
-1.7166289 4 0.39731741
-1.9599423 1.2113514 0
-4 -3.2554617 0.011727333
-0.37728977 4 0.39474916
-0.12281969 4 0.39064121
-0.074456424 4 0.39898729
0.77502757 4 0.39577627
0.81972545 4 0.3950057
-2.9497373 2.1057894 0
2.5015352 4 0.39205265
2.65762 4 0.39372158
2.8951941 4 0.39128256
3.7620003 4 0.39885902
-1.3876175 -1.312312 0
-3.677954 -4 0.40258598
-3.5381768 -4 0.40310001
-3.0257466 -4 0.40258598
1.1857755 2.9572184 0
-2.7255921 -4 0.40592861
-2.444824 -4 0.40875816
-2.3502812 -4 0.40438557
-1.9137412 -4 0.4007864
-1.6858916 -4 0.40117216
3.8900006 -1.938158 0
-4 1.6998821 0.26336861
-1.3685664 -4 0.40091515
-1.1972406 -4 0.40168619
-0.54845983 -4 0.4083724
-0.53396565 -4 0.40605688
-0.40636259 -4 0.40232849
1.1154537 -4 0.40940142
1.2548321 -4 0.40682888
1.2640125 -4 0.40528536
3.0183201 -4 0.40425682
3.4662235 -4 0.40065813
1.313975 -2.7631526 0
3.8820872 -4 0.40580794
4 -3.6678243 0.40953016
-4 -3.5980289 0.40104342
4 -3.3845224 0.40091515
4 -3.0099924 0.40978718
-4 -2.8730917 0.40515709
-4 -2.6759815 0.4007864
4 -2.5664289 0.40374279
4 -2.358562 0.40194321
-4 -2.1440604 0.40040112
-4 -1.6586857 0.402843
-4 -2.3285396 0.32063437
-4 -1.4215909 0.40824366
4 -1.3402289 0.4007864
1.6559747 -3.4118519 0
-4 -1.1610881 0.40940142
-4 -1.1307433 0.40734339
4 -0.6499368 0.40207148
-2.4668655 -2.242403 0
4 -0.21283656 0.4076004
-4 -0.079226434 0.40220022
4 0.010783434 0.40798616
-4 0.050894484 0.40451431
4 0.17361403 0.40554285
3.2634435 -0.25895214 0
4 0.44639486 0.40515709
-4 0.51289481 0.40811491
2.5056949 -1.9079857 0
4 0.82487345 0.40991592
-1.1190228 -2.1375828 0
-4 0.93268597 0.40862942
1.2993512 2.1068258 0
4 1.3031818 0.40130043
4 1.7571396 0.40875816
-2.5671158 -0.20979655 0
-1.6223712 -2.6419301 0
-3.6183808 0.83010077 0
4 2.3169713 0.40721464
-4 2.6103806 0.40322828
4 3.2813177 0.40798616
-4 3.3127944 0.40271425
4 3.3265162 0.40220022
-4 3.3673613 0.40091515
4 3.5002115 0.40592861
-4 3.9661384 0.4001441
-3.4795823 4 0.40734339
4 0.82136905 0.14934301
1.0688918 -3.359889 0
-2.9285834 4 0.40682888
-2.8672974 4 0.40515709
-2.6235716 4 0.40875816
-1.1262542 4 0.40953016
-1.0783242 4 0.40811491
-0.50118583 4 0.40695715
3.3394032 2.0449386 0
0.59224772 4 0.40785789
0.90808362 4 0.40168619
0.95693278 4 0.40438557
1.239598 4 0.40721464
1.7657011 4 0.4076004
2.6690094 4 0.4083724
2.8166285 4 0.40862942
3.3524737 4 0.40310001
3.4229236 4 0.40271425
3.6731789 4 0.40477133
1.647014 2.1865716 0
-3.4588253 -4 0.41197491
-3.0217235 -4 0.41094542
2.9829278 -3.815999 0
0.032053649 -4 0.41068792
0.3064478 -4 0.41120291
0.32189906 -4 0.41416311
0.3314597 -4 0.41120291
-0.12430683 -3.6808915 0
0.40536422 -4 0.41673803
0.58566087 -4 0.41326189
0.59230989 -4 0.41107416
1.1439067 -4 0.41970062
1.6645893 -4 0.41480684
1.8415399 -4 0.41377687
2.2687547 -4 0.41004467
2.3445857 -4 0.41326189
2.677278 -4 0.41879892
3.2465994 -4 0.41158867
3.4709322 -4 0.41776848
3.815825 -4 0.41705716
-4 -3.7102628 0.41734171
-4 -3.6431129 0.41766471
-4 -3.2285223 0.41184616
4 -3.1941736 0.41879892
4 -3.071785 0.41313314
-4 -3.0009954 0.416996
-4 -2.8622787 0.41429186
-4 -2.8108807 0.41120291
4 -2.6675568 0.41197491
0.62768447 -3.8494129 0
-4 -2.3504493 0.41261864
-4 -2.2811368 0.41970062
4 -2.282867 0.41377687
-4 -2.0549443 0.4144206
4 -1.7892811 0.41854143
4 -1.7267346 0.41828394
-4 -1.6334016 0.41004467
-4 -0.92245758 0.41944313
-4 -0.90150797 0.41068792
4 -0.55814624 0.41236115
4 -0.53091347 0.41660929
-4 -0.27656981 0.41326189
4 -0.0090518594 0.4144206
2.111887 1.6593771 0
0.0085735321 1.4635072 0
-4 0.69016874 0.41403437
4 0.80226028 0.41197491
4 0.88808882 0.41892767
-4 0.8916288 0.41133165
4 1.3143988 0.41970062
-4 1.3358357 0.41995859
2.7585082 -3.3010058 0
4 1.6182244 0.41583681
-3.5669677 -1.2201955 0
-4 1.8674458 0.41017342
-4 2.0119829 0.41107416
4 2.2894125 0.41725349
4 2.7782464 0.41454935
3.3786941 -3.0764518 0
-3.1159878 0.2440449 0
-1.4108768 -2.6577902 0
-3.71435 4 0.41995585
3.0175707 -2.5444694 0
-2.986141 4 0.41377687
-2.9305925 4 0.41274691
-2.8465195 4 0.41841269
-3.3368359 1.5369143 0
-1.9969504 4 0.41867018
-1.8378375 4 0.41557932
-1.0177639 -0.61607766 0
-0.10590059 -2.782042 0
-0.47957164 4 0.41648054
1.8323208 4 0.41532183
2.0662363 4 0.41403437
2.4850042 4 0.41970062
-0.20683658 1.9926044 0
1.8699327 0.2782315 0
3.0048842 4 0.41145992
3.2879522 4 0.4122324
3.3904288 4 0.41957188
3.8810284 4 0.41545057
3.9109113 4 0.41751099
-3.9387772 -4 0.42962694
-3.7653174 -4 0.42356634
-2.2256675 1.8614631 0
-3.4285138 -4 0.4215045
-2.487551 -4 0.42666054
-1.1879866 -4 0.42485571
-0.92190516 -1.9986978 0
-0.64123887 -4 0.42898226
-0.60010773 -4 0.42176247
-0.5627563 -4 0.4215045
-0.38987404 -4 0.42756319
-0.16549322 -4 0.42073131
0.10045043 -4 0.42936897
1.9213526 -4 0.4221487
-4 -0.08891584 0.25516796
2.5100851 -4 0.42086029
-2.7988708 0.73008513 0
3.5407763 -4 0.42872429
3.8743045 -4 0.4270246
0.3314597 -4 0.41120291
4 -3.2668471 0.42743444
-1.1187527 -2.1984887 0.21146107
1.2877011 2.7953677 0
4 -2.9332857 0.42433977
3.7832949 4 0.18812513
4 -2.8112199 0.42730522
-2.718148 3.7792504 0
4 -2.6876857 0.42924023
-4 -2.3930206 0.429111
0.98791438 -2.2138014 0
-4 -1.6116813 0.42872429
4 -1.549753 0.42550039
-4 -1.4582173 0.42782116
-4 -1.420678 0.4215045
-4 -1.3484715 0.42975616
4 -1.2589029 0.4221487
3.012435 3.3958926 0
-4 -0.71544772 0.42421103
-4 -0.68719417 0.42279339
4 -0.66998446 0.42446899
-2.9900923 -1.8700619 0
-4 -0.60705 0.4283371
-4 -0.44887614 0.42382431
-0.94387943 2.4239471 0
-4 -0.017470852 0.42421103
4 0.16927013 0.42060232
-4 0.77577478 0.42098904
-4 0.81253588 0.4215045
0.8435576 1.5737841 0
3.9410753 0.91557598 0
-4 1.234821 0.42459774
-4 1.3837416 0.42872429
-2.421592 2.440933 0
4 1.4744048 0.42524362
4 1.5140383 0.42859507
4 1.7227004 0.42704773
-4 2.0552273 0.42975616
4 2.2398701 0.4231801
-2.7843294 -0.49465048 0.21255684
-0.60191625 0.46480805 0
-4 2.597024 0.42124701
4 2.6954529 0.42859507
4 2.8916903 0.42369556
3.955462 1.2721061 0
-4 -3.3539882 0.19537878
0.7209146 2.7465227 0
-4 3.90803 0.42795038
-3.7160912 4 0.4265376
-3.6532097 4 0.42788973
-3.6283514 4 0.42763066
-4 -0.50361437 0.0026860237
-2.6336989 4 0.42021608
-2.4445379 4 0.42640257
-1.9680498 4 0.42305088
-0.91727078 4 0.42137575
-0.31958836 4 0.42227793
0.39783582 4 0.42924023
0.81948948 4 0.42704773
-1.934304 -1.3771191 0
1.335857 4 0.42330885
1.4679049 4 0.42820835
2.0428348 4 0.42292213
2.4436076 4 0.42988491
3.0251207 4 0.4283371
3.5308659 4 0.42356634
3.7556064 4 0.42356634
3.9401491 4 0.42782116
-3.6647224 -4 0.43362713
-3.4102943 -4 0.4399538
-2.8666275 -4 0.43001413
-1.5794234 -3.0456104 0
1.5200237 0.011980891 0
-0.7974053 -4 0.43711281
-2.491329 3.6284697 0
0.39949983 -4 0.43001413
0.45507586 -4 0.43724155
2.1794477 -4 0.08381319
1.2714475 -4 0.43453074
1.7020749 -4 0.4347887
2.2729247 -4 0.43156242
2.7778146 -4 0.43827486
3.2060847 -4 0.43879128
3.2312522 -4 0.43104601
3.3508167 -4 0.43065929
3.4964671 -4 0.43659592
3.7427268 -3.3563056 0
3.9787135 -4 0.43957049
4 1.9398789 0.21417046
4 -3.8532307 0.43814564
4 -3.7200449 0.43104601
-4 -3.6968043 0.43067628
-4 -3.5235202 0.43840408
-4 -3.2573013 0.43543434
-4 -3.1333213 0.43569231
4 -2.7850275 0.43401432
4 -2.6686187 0.43117523
-2.3776288 -2.3169742 0
4 -2.1482592 0.43323994
-4 -2.0971448 0.43014288
4 -1.8699547 0.4314332
-4 -1.8049438 0.43582153
4 -1.6379251 0.4302721
4 -1.511886 0.43827486
4 -1.252982 0.43259478
-4 -1.2448872 0.43620872
-3.062475 -4 0.026778221
3.9529181 0.73830223 0
-4 -1.1414622 0.43453074
-4 -0.73606014 0.43633795
4 -2.1053362 0.02922821
-4 -0.20190689 0.43762922
4 0.22652707 0.43156242
-4 0.86234039 0.43285275
-4 1.3172606 0.43737078
-4 1.3977193 0.43040085
4 1.6580375 0.4399538
4 1.8102515 0.43672514
4 1.895153 0.43943739
-4 1.9611298 0.4389205
-4 1.9814321 0.43285275
-0.78566945 -3.4571695 0
4 2.3942573 0.43775845
4 2.447176 0.4338851
4 2.5983801 0.43233633
-1.4613135 3.5224545 0
-4 3.3467028 0.43827486
4 3.4026439 0.43104601
4 3.6115925 0.43382421
-3.7946093 4 0.43374756
-3.0169919 4 0.43169117
-2.981365 4 0.43775845
2.9200628 1.6299392 0
-2.3148811 4 0.4399538
-2.2135737 4 0.43323994
-1.3564205 -2.1904979 0
-1.50388 4 0.43207836
-1.471404 4 0.43259478
-1.3424131 4 0.43375587
-1.1583775 4 0.43917894
-2.6504941 -0.90252483 0
-0.058588266 4 0.43117523
-3.5921388 0.45377886 0
0.44262779 4 0.43556309
0.5828321 4 0.43982458
0.86785036 4 0.43556309
1.0921834 4 0.43362713
2.2639573 4 0.43930817
2.8102996 4 0.4302721
2.8321669 4 0.43724155
3.0056007 4 0.43453074
3.2091272 4 0.43569231
3.3301127 4 0.43595076
-3.1564786 -2.8557837 0
3.8813522 4 0.4360795
-3.8678436 -4 0.44240856
-3.8020606 -4 0.4404707
-2.9745371 -4 0.44551039
-2.9477434 -4 0.44680309
-2.6259446 -4 0.44292545
-1.2650069 -3.0793495 0
-2.3577132 -4 0.44072914
-2.2904363 -4 0.44008303
-0.71916223 -4 0.44667387
3.9039798 4 0.21191311
1.1330317 -4 0.44964838
1.5541197 -4 0.44667387
1.6329648 -4 0.44913101
2.1840825 -4 0.44641542
-1.7297215 0.46063513 0
2.9383531 -4 0.44990683
3.1881692 -4 0.44331312
3.2411485 -4 0.44072914
3.2738886 -4 0.44098759
-4 -3.9463673 0.44568533
-2.3408906 -1.9402325 0
4 -3.8104305 0.44305468
4 -3.4530053 0.44990683
-4 -3.4097743 0.44215012
-4 -2.9237759 0.4431839
4 -2.7934391 0.44331312
-4 -2.6065848 0.4443469
4 -2.5188515 0.44602776
-4 -2.3796453 0.4482255
4 -1.5870004 0.44008303
4 -1.5375122 0.44680309
4 -1.3589388 0.44370079
4 -1.2408104 0.44732046
4 -0.76363271 0.44770813
4 -0.7094512 0.44395924
4 -0.53343809 0.44732046
-4 -0.17812258 0.44641542
4 -0.086778536 0.44292545
4 0.21238378 0.44408846
-4 0.57970798 0.44719124
-4 0.63756263 0.44563961
-4 0.88837302 0.44279623
4 0.92030346 0.44654465
-1.003436 1.8045479 0
-4 1.4534061 0.44072914
4 1.6574279 0.44292545
4 1.9312789 0.44602776
-4 2.2889671 0.44887209
4 2.5457969 0.4431839
-1.965193 -1.2706115 0
-0.88795757 1.7581596 0
4 3.5633516 0.44776431
4 3.5829566 0.44406682
-4 3.7357056 0.44951868
4 3.8167601 0.44559872
4 3.8615518 0.44917017
4 3.9045079 0.44492024
2.2485216 1.0545321 0
-3.2845514 4 0.44189167
3.5804543 -1.7186646 0
-1.6501529 4 0.44525194
-1.5790377 4 0.44757891
2.10445 -1.4658027 0
-0.8766768 4 0.44770813
-0.80695701 4 0.44861364
-0.58917445 4 0.44331312
-0.046867758 4 0.44357157
1.1412599 4 0.44189167
1.24246 4 0.44615698
2.5234621 4 0.44602776
-0.23301399 1.8527223 0
-3.6969135 -4 0.45896626
-3.4708285 -4 0.45107126
-2.6268051 -4 0.45145893
-0.33456981 -4 0.45831871
0.15757802 -4 0.45107126
0.18912953 -4 0.45482349
0.28649467 -4 0.45042419
0.30874789 -4 0.45301199
1.0053024 -4 0.45948458
1.0581778 -4 0.45818949
-0.89842868 -1.2285647 0
1.3661271 -4 0.45236492
1.6437819 -4 0.45469427
1.7861807 -4 0.45547056
2.1672261 -4 0.45068312
2.7483244 2.8279443 0
2.7683899 -4 0.45521164
3.3284144 -4 0.45728302
3.9515431 -4 0.45117107
-4 -3.9015138 0.45110628
-4 -3.6887307 0.45327672
4 -3.2220502 0.45132971
-4 -2.9967294 0.45081234
4 -2.8154519 0.4535296
4 -2.6102118 0.45767164
-4 -2.5772603 0.4539175
4 -2.2104614 0.45598841
1.6536849 -2.2229099 0
2.0959799 -2.9415808 0
4 -1.7727617 0.4597435
4 -1.5892911 0.45663595
4 -1.5444885 0.45831871
4 -1.4492995 0.45042419
4 -1.4315385 0.45171785
4 -1.3712012 0.45572948
-4 -1.2028487 0.45365858
2.2331111 2.061492 0
-4 -0.50581491 0.45469427
4 -0.48202479 0.45223522
3.6195178 1.2861034 0
-4 -0.43027383 0.45236492
4 -0.41235664 0.45443535
4 -0.39169779 0.45120049
-0.79494601 -3.6824169 0
-4 -0.32070804 0.4598732
-4 0.073200598 0.45184708
-4 0.38367045 0.45560026
4 0.47979504 0.45469427
0.42156935 -3.069272 0
4 0.79902458 0.45275307
-4 1.1292119 0.45327044
-4 1.1451812 0.45469427
-4 1.3377191 0.45805979
4 1.462033 0.45288229
-4 1.5318042 0.45120049
3.6444376 -1.0437541 0
4 2.0450397 0.45624733
4 2.1028433 0.45793056
-4 2.8490789 0.45430565
4 2.8603294 0.45741272
2.964839 1.9356736 0.22734714
4 3.023232 0.45896626
4 3.0495763 0.45909595
-4 3.1152177 0.45378828
4 3.3574047 0.45068312
4 3.3691578 0.4598732
-4 3.423727 0.45572948
-4 3.5123124 0.45844841
4 -0.98979205 0.00012207031
4 3.7988565 0.4560591
-3.7298243 4 0.45630106
-3.6835997 4 0.45604688
2.9300873 -3.8872671 0
-3.0544331 4 0.45857811
4 -3.9687121 0.23300743
-2.0620439 4 0.45857811
-1.7763762 4 0.45624733
-1.0174576 4 0.45262337
-0.3838951 4 0.45844841
0.0071295649 4 0.45844841
0.095556468 4 0.45676517
0.21601197 4 0.45275307
0.53760314 4 0.45288229
0.83944422 4 0.45482349
1.003316 4 0.45637703
1.06741 4 0.45365858
1.5887234 3.7539895 0.22864151
3.2716126 0.53336227 0
-0.046867758 4 0.44357157
1.8658423 4 0.45120049
2.2293048 4 0.45780087
2.5523207 4 0.45585918
3.5900116 4 0.45676517
-3.655226 -4 0.46829605
2.4343226 -1.0342574 0
-3.5185215 -4 0.46557379
-0.49339527 -0.26403326 0
-2.6325448 -4 0.46531439
-2.4263425 -4 0.46557379
0.43225855 -3.1241775 0
-0.94967169 -4 0.46375942
-1.2616533 1.5359961 0
-0.7925626 -4 0.46855545
-0.51110494 -4 0.46479607
-0.45784277 -4 0.46155691
0.49087423 -4 0.46816635
0.71484584 -4 0.46544409
0.80508852 -4 0.4631114
1.2474513 -4 0.46401882
1.2529188 -4 0.46013212
1.345974 -4 0.46259308
2.01248 -4 0.46790743
2.1844981 -4 0.46220446
2.3011544 -4 0.46959305
2.4025452 -4 0.46764803
-1.0157092 -2.4944386 0
3.0921383 -4 0.46790743
3.1536016 -4 0.46829605
3.5933752 -4 0.46604979
3.7777319 -4 0.46584418
3.8336153 -4 0.46568447
4 -3.7878966 0.46998215
-4 -3.7386818 0.46270567
4 -3.7243917 0.46777773
-4 -3.6142313 0.46045813
-4 -3.4636395 0.46414804
-3.6468527 -0.055207491 0
-0.2835865 -2.8863544 0
